VERSION .7
FIELDS x y z label object
SIZE 4 4 4 4 4
TYPE F F F I I
COUNT 1 1 1 1 1
WIDTH 1244
HEIGHT 1
POINTS 1244
VIEWPOINT 0 0 0 1 0 0 0
DATA ascii
-1.7856426 0.88313246 -0.068935752 0 -1
-1.7069664 0.83759212 -0.045803785 0 -1
-1.6916604 0.85958719 -0.04735744 0 -1
-1.6599758 0.86360598 -0.042483091 0 -1
-1.6470354 0.88824081 -0.045066595 0 -1
-1.6249416 0.90269732 -0.044050574 0 -1
-1.6231112 0.94030023 -0.051263928 0 -1
-1.6064134 0.96116543 -0.052563667 0 -1
-1.6033471 0.99813437 -0.059521556 0 -1
-1.5806518 1.0122585 -0.058508158 0 -1
-1.5652974 1.0351489 -0.060581326 0 -1
-1.4192336 0.89882207 -0.0078783035 0 -1
-1.4045036 0.92078519 -0.0099520683 0 -1
-1.4668665 1.0392828 -0.044945002 0 -1
-1.4571908 1.0691776 -0.049592376 0 -1
-1.4187202 1.0625021 -0.041895509 0 -1
-1.4069657 1.0899358 -0.045772672 0 -1
-1.3739145 1.089658 -0.040391445 0 -1
-1.3461871 1.0960581 -0.037325501 0 -1
-1.3317132 1.1201012 -0.040175796 0 -1
-1.3113327 1.1362946 -0.040454626 0 -1
-1.290283 1.1515834 -0.040476918 0 -1
-1.2388411 1.1242568 -0.026610017 0 -1
-1.2501285 1.1849325 -0.041552186 0 -1
-1.2145207 1.2716901 -0.055259943 0 -1
-1.1749306 1.2598631 -0.046797037 0 -1
-1.1658876 1.2936773 -0.052997589 0 -1
-1.167906 1.4955149 -0.098648548 0 -1
-1.1446555 1.5099156 -0.098679423 0 -1
-1.1218188 1.5249989 -0.098968267 0 -1
0.069777489 1.4203541 0.055380166 3 4
0.093645453 1.4234595 0.056362152 3 4
0.1156249 1.4329078 0.055539846 3 4
0.14426637 1.4189858 0.061159968 3 4
0.15542448 1.4672432 0.049512029 3 4
0.52204973 1.3238022 0.1080783 3 4
0.54935336 1.2993145 0.11576223 3 4
0.57037902 1.3088975 0.11416042 3 4
0.5914979 1.3183568 0.11255813 3 4
0.61532199 1.3114769 0.11534083 3 4
0.63682193 1.3187623 0.11425364 3 4
0.65810543 1.3278306 0.11264974 3 4
1.181088 -0.064758778 0.49416703 2 0
1.1947267 -0.054104567 0.4912852 2 0
-1.8856037 -1.4027691 0.19647455 0 -1
-1.8912055 -1.3806331 0.19328564 0 -1
-1.8689845 -1.3667445 0.19814843 0 -1
-1.2987342 -1.3163134 0.34419769 0 -1
-1.0705659 -1.3733829 0.40916127 0 -1
-1.0479915 -1.366495 0.41427702 0 -1
-1.0325246 -1.3568672 0.41724622 0 -1
-1.0365164 -1.3390741 0.41431332 0 -1
-1.8890078 0.19789052 -0.012797952 0 -1
-1.8100495 0.19556546 0.0046325922 0 -1
-1.7689207 0.19227147 0.014017105 0 -1
-1.4211633 -0.044100523 0.13036001 3 5
-1.3739178 -0.057201862 0.14269155 3 5
-1.3572955 -0.044050455 0.14376378 3 5
-1.3449223 -0.027172089 0.14322722 3 5
-1.3302922 -0.012297869 0.14349425 3 5
-1.3276641 0.013531923 0.13920379 3 5
-1.3233995 0.038105726 0.13544893 3 5
-1.3118973 0.056127071 0.1343742 3 5
-1.285589 0.060172081 0.13892835 3 5
-1.8559825 0.93862796 -0.14635873 0 -1
-1.79474 0.91287494 -0.12947977 0 -1
-1.7463315 0.89995623 -0.11769485 0 -1
-1.7325604 0.92433 -0.12011886 0 -1
-1.6992798 0.92715955 -0.11450088 0 -1
-1.6763086 0.9412291 -0.11317301 0 -1
-1.6405702 0.94065142 -0.10648358 0 -1
-1.6036851 0.93830085 -0.099258542 0 -1
-1.5575423 0.9246397 -0.088012457 0 -1
-1.5222428 0.92304492 -0.081324577 0 -1
-1.4790428 0.9115231 -0.071151376 0 -1
-1.4409885 0.90554118 -0.063123822 0 -1
-1.4177034 0.91714573 -0.061531186 0 -1
-1.4004104 0.93609452 -0.062620401 0 -1
-1.3853793 0.9579699 -0.064782739 0 -1
-1.3695824 0.97902322 -0.066677332 0 -1
-1.3471382 0.99162436 -0.065623522 0 -1
-1.3375046 1.0209134 -0.070469022 0 -1
-1.3059342 1.0640512 -0.074799538 0 -1
-1.2853279 1.0793073 -0.074820638 0 -1
-1.2572708 1.0843027 -0.071356177 0 -1
-1.2606733 1.13293 -0.082909346 0 -1
-1.2529991 1.1667814 -0.089368463 0 -1
-1.2339938 1.2772906 -0.11170065 0 -1
-1.1750314 1.2369108 -0.093221426 0 -1
-1.1836936 1.2971387 -0.10853481 0 -1
-1.1716752 1.3269608 -0.11365783 0 -1
-1.1774933 1.4856915 -0.15183032 0 -1
-1.1532893 1.4985125 -0.15132451 0 -1
-1.1300213 1.5128222 -0.15135574 0 -1
0.083669305 1.414963 0.010931253 3 4
0.10694468 1.4198389 0.011419773 3 4
0.12944388 1.4273469 0.011101723 3 4
0.15251267 1.4328628 0.011320591 3 4
0.55201364 1.3469477 0.058591783 3 4
0.59883112 1.3412099 0.062246263 3 4
0.62948287 1.2914937 0.077250659 3 4
0.64656162 1.3272533 0.068051517 3 4
0.66543776 1.353404 0.061540365 3 4
1.1741503 -0.19601297 0.5040217 2 0
1.1869949 -0.19882917 0.50479263 2 0
1.1998011 -0.20268726 0.50583279 2 0
-1.7483819 -1.3553815 0.18491036 0 -1
-1.7617695 -1.3311183 0.17903244 0 -1
-1.6948378 -1.333305 0.19790667 0 -1
-1.069093 -1.3840339 0.37559986 0 -1
-1.0492954 -1.3759928 0.38011777 0 -1
-1.048974 -1.3600436 0.37844932 0 -1
-1.0494249 -1.3436899 0.3764993 0 -1
-1.8713272 0.19744515 -0.065870047 0 -1
-1.7900875 0.16189647 -0.040858746 0 -1
-1.7329895 0.14511251 -0.024839878 0 -1
-1.3659952 -0.13413334 0.11003608 3 5
-1.3410642 -0.12845898 0.11453319 3 5
-1.3306744 -0.11044931 0.11341 3 5
-1.3172715 -0.095015764 0.11341029 3 5
-1.3066459 -0.077117682 0.11228615 3 5
-1.320173 -0.037465811 0.10160798 3 5
-1.3127136 -0.016287804 0.09907794 3 5
-1.3262734 0.024380445 0.088117659 3 5
-1.7487798 0.44672227 -0.086659431 0 -1
-1.7396326 0.47195125 -0.089753509 0 -1
-1.8032656 0.9005692 -0.19182205 0 -1
-1.7777858 0.91254163 -0.1893034 0 -1
-1.7581022 0.93069386 -0.18931437 0 -1
-1.7370205 0.94730091 -0.1887641 0 -1
-1.7708104 1.0253408 -0.21238148 0 -1
-1.7669377 1.0621636 -0.21970117 0 -1
-1.7394037 1.0722852 -0.21662366 0 -1
-1.7343872 1.1083875 -0.22366393 0 -1
-1.5823944 0.97194719 -0.16438222 0 -1
-1.4247859 0.82495522 -0.10172749 0 -1
-1.4093192 0.8453784 -0.10342872 0 -1
-1.3912692 0.86275792 -0.10400629 0 -1
-1.419554 0.9375062 -0.12622488 0 -1
-1.4015191 0.95571113 -0.12708497 0 -1
-1.3797946 0.96929407 -0.12625945 0 -1
-1.3326554 0.95016575 -0.1133492 0 -1
-1.3308764 0.98917675 -0.12208056 0 -1
-1.31073 1.0045867 -0.12209988 0 -1
-1.293942 1.0244815 -0.12380624 0 -1
-1.2804275 1.0489223 -0.12719965 0 -1
-1.2638774 1.069447 -0.12918842 0 -1
-1.2307725 1.246913 -0.1661278 0 -1
-1.1671569 1.1996675 -0.14422667 0 -1
-1.1787171 1.2635818 -0.16168153 0 -1
-1.1795628 1.3125317 -0.1737963 0 -1
-1.1697974 1.4456122 -0.20508707 0 -1
-1.1235125 1.4225552 -0.19218433 0 -1
-1.076092 1.3966198 -0.17843795 0 -1
-1.0728509 1.4424646 -0.18943381 0 -1
-1.0207119 1.512531 -0.1993711 0 -1
-0.018988132 1.4581177 -0.065765977 3 4
0.0095012188 1.4480844 -0.060464978 3 4
0.036122084 1.4433446 -0.056853294 3 4
0.063473344 1.435663 -0.052397132 3 4
0.094495296 1.4149051 -0.043999195 3 4
0.12362146 1.3994393 -0.037290692 3 4
0.14156604 1.4225397 -0.042408347 3 4
0.16255951 1.4353833 -0.044429421 3 4
0.19314814 1.4128995 -0.035750031 3 4
0.51436388 1.3551621 0.0010348558 3 4
0.53537053 1.3668015 -0.0012739897 3 4
0.56073934 1.3537364 0.0037435293 3 4
0.58875716 1.3234622 0.013834119 3 4
0.61546987 1.2986679 0.02223444 3 4
0.63864744 1.2945457 0.02443409 3 4
0.65993279 1.3026133 0.022969484 3 4
0.68049103 1.3162546 0.019812822 3 4
1.1661538 -0.2413857 0.48731405 2 0
1.1787646 -0.2508564 0.4901002 2 0
1.1912488 -0.27383518 0.49683821 2 0
-1.544255 -1.3487015 0.19085425 0 -1
-1.5618887 -1.3237541 0.1831677 0 -1
-1.5307319 -1.3158405 0.19149858 0 -1
-1.0497653 -1.3606149 0.33611 0 -1
-1.0413928 -1.3479851 0.33701795 0 -1
-1.0390992 -1.3328011 0.3358497 0 -1
-1.0358269 -1.3179896 0.33497763 0 -1
-1.8727169 0.22123432 -0.13965416 0 -1
-1.3612697 -0.17033148 0.060096323 3 5
-1.3306627 -0.16942859 0.067210853 3 5
-1.3183506 -0.15337706 0.06691581 3 5
-1.3117335 -0.13241959 0.064249456 3 5
-1.308557 -0.10832977 0.060100794 3 5
-1.3109148 -0.0791502 0.053580821 3 5
-1.3165727 -0.046683073 0.04557848 3 5
-1.3155441 -0.019822836 0.04024303 3 5
-1.3185112 0.010973454 0.033128738 3 5
-1.3829021 0.098951578 -0.000065803528 3 5
-1.5076635 0.24524045 -0.059340954 3 5
-1.7201498 0.47789145 -0.1568476 0 -1
-1.7607989 0.92138505 -0.26391888 0 -1
-1.7449212 0.94366789 -0.26570868 0 -1
-1.721216 0.95735645 -0.26394248 0 -1
-1.8985398 1.2404881 -0.36622381 0 -1
-1.6705556 1.0626523 -0.27822411 0 -1
-1.6820219 1.1180654 -0.29365242 0 -1
-1.4431374 0.87465978 -0.1881485 0 -1
-1.399385 0.86128831 -0.17630768 0 -1
-1.3637373 0.85712671 -0.16832042 0 -1
-1.3749309 0.91069269 -0.18345416 0 -1
-1.3736815 0.94955587 -0.19266045 0 -1
-1.3803034 0.99904299 -0.20601749 0 -1
-1.3147926 1.0397067 -0.20370388 0 -1
-1.293196 1.0534842 -0.20313156 0 -1
-1.3054934 1.113271 -0.22034657 0 -1
-1.3339922 1.1965108 -0.24645615 0 -1
-1.1513646 1.2085817 -0.2172513 0 -1
-1.1135166 1.1982095 -0.20808613 0 -1
-1.1459486 1.2945962 -0.23865175 0 -1
-1.1019988 1.3725727 -0.25178301 0 -1
-1.0905747 1.4044268 -0.25833619 0 -1
-1.055932 1.3987963 -0.25125003 0 -1
-1.0421557 1.4272308 -0.25661862 0 -1
-1.0266509 1.4531713 -0.26109827 0 -1
-1.0403781 1.5293148 -0.2836684 0 -1
0.031193256 1.4368312 -0.12348902 3 4
0.05713892 1.4338326 -0.12027144 3 4
0.084101081 1.4269974 -0.11586642 3 4
0.10771334 1.430968 -0.11502481 3 4
0.14237857 1.3962343 -0.10171151 3 4
0.16731131 1.3943212 -0.09908843 3 4
0.19293666 1.3894782 -0.095574498 3 4
0.21698725 1.3899953 -0.093842745 3 4
0.22393745 1.4559684 -0.11319816 3 4
0.60336381 1.3377047 -0.053690672 3 4
0.6272496 1.3308661 -0.050476909 3 4
0.65174425 1.3191514 -0.045776963 3 4
0.6764856 1.3044386 -0.040185213 3 4
0.69958091 1.2999613 -0.037863374 3 4
0.72122049 1.3057477 -0.038811564 3 4
1.1922736 -0.41361988 0.50543398 2 0
-1.4816608 -1.3836961 0.18466699 0 -1
-1.4859691 -1.3638959 0.18133414 0 -1
-1.4910331 -1.3436929 0.17769593 0 -1
-1.4502347 -1.3397889 0.18962628 0 -1
-1.4202235 -1.3324256 0.19789243 0 -1
-1.398253 -1.3224022 0.20341057 0 -1
-1.3967352 -1.3048401 0.20190734 0 -1
-1.3506885 -1.3044287 0.21566564 0 -1
-1.338407 -1.2912896 0.21782422 0 -1
-1.1275969 -1.3412361 0.28654045 0 -1
-1.0760107 -1.3460045 0.30243039 0 -1
-1.0631726 -1.3350703 0.30489039 0 -1
-1.0686607 -1.3163663 0.30094087 0 -1
-1.7928383 -0.91766655 0.037039638 0 -1
-1.7653928 -0.90823698 0.043774962 0 -1
-1.8006124 -0.80137241 0.018836141 0 -1
-1.6485801 -0.85506356 0.070118189 0 -1
-1.5345023 -0.23653293 -0.0033447742 3 5
-1.5180826 -0.22273302 -0.0018138885 3 5
-1.4714308 -0.23232055 0.011917233 3 5
-1.4505181 -0.222471 0.015277147 3 5
-1.4325731 -0.2104373 0.017416477 3 5
-1.4056604 -0.20568991 0.023215652 3 5
-1.3654742 -0.21199203 0.034504414 3 5
-1.3431275 -0.2042017 0.038472295 3 5
-1.3273716 -0.19112706 0.039694548 3 5
-1.3166504 -0.17387342 0.038781166 3 5
-1.3166833 -0.14740515 0.033292055 3 5
-1.3193688 -0.11836839 0.026582479 3 5
-1.3232269 -0.087965488 0.019262314 3 5
-1.3246658 -0.059327602 0.012856722 3 5
-1.4045885 0.039941311 -0.027406096 3 5
-1.4276533 0.089729786 -0.043573141 3 5
-1.4179332 0.11026001 -0.045710087 3 5
-1.4038744 0.12687016 -0.046017408 3 5
-1.7413578 0.47427273 -0.20096946 0 -1
-1.7726343 0.5381887 -0.22232449 0 -1
-1.7746694 0.90926266 -0.30750024 0 -1
-1.7550075 0.92739367 -0.30751133 0 -1
-1.7390723 0.94963861 -0.30935311 0 -1
-1.7375817 0.98812985 -0.31821179 0 -1
-1.7199602 1.0088861 -0.31944501 0 -1
-1.7861257 1.1256762 -0.36155522 0 -1
-1.7408814 1.115746 -0.34967303 0 -1
-1.7032812 1.1140904 -0.34145164 0 -1
-1.5989881 1.0326674 -0.29997957 0 -1
-1.4471183 0.89149737 -0.23410201 0 -1
-1.415489 0.89289594 -0.22801638 0 -1
-1.4043274 0.91918397 -0.23230374 0 -1
-1.4482772 1.0146053 -0.26496351 0 -1
-1.6316779 1.2885151 -0.37023306 0 -1
-1.4017153 1.0392263 -0.26194918 0 -1
-1.3812628 1.0550675 -0.26196837 0 -1
-1.3647497 1.0760884 -0.26412368 0 -1
-1.3520784 1.1023619 -0.26841545 0 -1
-1.3652759 1.1637931 -0.28674233 0 -1
-1.4250703 1.290056 -0.33069932 0 -1
-1.1731422 1.2088292 -0.26310778 0 -1
-1.1521823 1.2240562 -0.2634387 0 -1
-1.1662478 1.2924247 -0.28421497 0 -1
-1.1141243 1.2605188 -0.26654339 0 -1
-1.1534057 1.4703202 -0.33010375 0 -1
-1.1273153 1.4797637 -0.32830334 0 -1
-1.0606375 1.4223018 -0.30147827 0 -1
-1.0828886 1.5111847 -0.32958722 0 -1
-1.0576088 1.5217803 -0.32839882 0 -1
0.042235732 1.4251945 -0.15773547 3 4
0.068351865 1.4212379 -0.15411687 3 4
0.086241722 1.4444828 -0.15966618 3 4
0.10703027 1.4585035 -0.16216052 3 4
0.13106847 1.4614167 -0.16098809 3 4
1.1830153 -0.45841479 0.50124615 2 0
1.1942195 -0.42316949 0.48988169 2 0
-1.3264577 -1.3798486 0.19792032 0 -1
-1.2760239 -1.3290026 0.20780629 0 -1
-1.3274224 -1.2911443 0.18728685 0 -1
-1.1461892 -1.3463879 0.25019288 0 -1
-1.0666549 -1.3623478 0.27675605 0 -1
-1.0731907 -1.343385 0.27235073 0 -1
-1.0664821 -1.3298765 0.27268505 0 -1
-1.0771091 -1.3088822 0.26669949 0 -1
-1.0780098 -1.2919233 0.26418948 0 -1
-1.224297 -1.2098529 0.20859766 0 -1
-1.7210362 -0.81229424 0.0024421215 0 -1
-1.8767531 -0.61309826 -0.074228644 0 -1
-1.8017042 -0.63019538 -0.04957211 0 -1
-1.7501371 -0.63512325 -0.033761263 0 -1
-1.7366514 -0.61898994 -0.03248167 0 -1
-1.8027337 -0.55685818 -0.061841726 0 -1
-1.6869256 -0.19597054 -0.094804645 0 -1
-1.5518217 -0.26839995 -0.044267178 3 5
-1.5142922 -0.27033567 -0.033838868 3 5
-1.4776468 -0.27208281 -0.02372694 3 5
-1.4471533 -0.26958871 -0.01614213 3 5
-1.4174798 -0.26681066 -0.0088735819 3 5
-1.3819013 -0.26900792 0.00092065334 3 5
-1.3650162 -0.25680184 0.0028195381 3 5
-1.3488169 -0.24413204 0.0044019222 3 5
-1.3421187 -0.22379041 0.0018785 3 5
-1.3381934 -0.20103788 -0.0019086599 3 5
-1.3297157 -0.18190742 -0.0038013458 3 5
-1.3268926 -0.15789914 -0.008220911 3 5
-1.3339565 -0.12520313 -0.017062306 3 5
-1.3278129 -0.10353351 -0.020219803 3 5
-1.4505258 0.031480551 -0.080537438 3 5
-1.4553957 0.064667702 -0.08906436 3 5
-1.4380984 0.078320026 -0.087802052 3 5
-1.4235384 0.094405413 -0.087803483 3 5
-1.4423501 0.14128757 -0.10296381 3 5
-1.8087413 0.51364636 -0.27665734 0 -1
-1.7942638 0.53460217 -0.27792406 0 -1
-1.7854929 0.89385343 -0.36073542 0 -1
-1.7665703 0.91274714 -0.36106181 0 -1
-1.7577617 0.94274187 -0.36644197 0 -1
-1.7461545 0.96992946 -0.37055945 0 -1
-1.7765987 1.0445735 -0.39583838 0 -1
-1.7291641 1.0320754 -0.38227105 0 -1
-1.684485 1.0219882 -0.36996734 0 -1
-1.65116 1.0244403 -0.3633492 0 -1
-1.5743632 0.975214 -0.33430696 0 -1
-1.472703 0.8946135 -0.29199898 0 -1
-1.5323224 1.0066972 -0.33339059 0 -1
-1.4358709 0.92999077 -0.29329383 0 -1
-1.453007 0.99184155 -0.31289363 0 -1
-1.5214832 1.1193457 -0.36028993 0 -1
-1.6008065 1.2634718 -0.4143213 0 -1
-1.614465 1.3262475 -0.43360913 0 -1
-1.4760325 1.2363086 -0.3818481 0 -1
-1.4043953 1.1857131 -0.35407186 0 -1
-1.4162762 1.2466152 -0.37273085 0 -1
-1.1782753 1.1391544 -0.29766333 0 -1
-1.1390319 1.1269755 -0.28694654 0 -1
-1.1302354 1.1593034 -0.29423738 0 -1
-1.1678658 1.2619791 -0.32964683 0 -1
-1.1715453 1.3152571 -0.3451544 0 -1
-1.0726101 1.2109888 -0.29810679 0 -1
-1.166543 1.4560606 -0.38378537 0 -1
-1.134527 1.4559419 -0.37812817 0 -1
-1.0976439 1.4474826 -0.36931181 0 -1
0.053213239 1.4134061 -0.20150781 3 4
0.073474526 1.4284894 -0.20440352 3 4
0.09548533 1.4380026 -0.20540154 3 4
0.11809516 1.4455624 -0.20576739 3 4
0.1348536 1.4739897 -0.21341085 3 4
1.1738777 -0.48624229 0.48779464 2 0
1.1851109 -0.52789247 0.5017125 2 0
1.1959059 -0.53072596 0.50263232 2 0
-1.2195394 -1.347829 0.18814725 0 -1
-1.1532156 -1.3572091 0.21087313 0 -1
-1.0975974 -1.3631008 0.22964889 0 -1
-1.0709395 -1.3577313 0.23756498 0 -1
-1.0695446 -1.3420351 0.23593831 0 -1
-1.0775926 -1.3222346 0.23069203 0 -1
-1.0759571 -1.3064451 0.22906494 0 -1
-1.0776675 -1.2891111 0.22612149 0 -1
-1.0628879 -1.2790797 0.22942895 0 -1
-1.1528468 -1.2212874 0.19259751 0 -1
-1.1497505 -1.1524943 0.18345338 0 -1
-1.0614893 -1.1783539 0.215051 0 -1
-1.057174 -1.1632782 0.21407926 0 -1
-1.0569642 -1.1460685 0.21146244 0 -1
-1.0448878 -1.1348985 0.21345061 0 -1
-1.040282 -1.1198795 0.21247792 0 -1
-1.03391 -1.1057624 0.21216273 0 -1
-1.7142246 -0.719841 -0.060187817 0 -1
-1.7227654 -0.69204211 -0.06740725 0 -1
-1.6989036 -0.68201125 -0.061798573 0 -1
-1.6684525 -0.6759311 -0.053559184 0 -1
-1.6798141 -0.64620149 -0.062095523 0 -1
-1.6925507 -0.61532271 -0.071290016 0 -1
-1.6887484 -0.59382379 -0.073906422 0 -1
-1.7820399 -0.51412964 -0.11599255 0 -1
-1.7283156 -0.52188182 -0.098546028 0 -1
-1.7231777 -0.19048047 -0.16056073 0 -1
-1.5364125 -0.29967749 -0.085571289 3 5
-1.5082295 -0.29478025 -0.078658342 3 5
-1.4642215 -0.30204916 -0.064839721 3 5
-1.4309347 -0.30178642 -0.055625796 3 5
-1.4119692 -0.29091847 -0.052660942 3 5
-1.3713617 -0.29703605 -0.040159464 3 5
-1.3524315 -0.28661561 -0.037195563 3 5
-1.3371601 -0.27340531 -0.035876393 3 5
-1.3298991 -0.25377464 -0.038174987 3 5
-1.3261456 -0.23116541 -0.042118311 3 5
-1.3207552 -0.20973229 -0.045404553 3 5
-1.3173664 -0.18646598 -0.04967773 3 5
-1.317384 -0.16010523 -0.055595636 3 5
-1.4596057 -0.011064768 -0.12695551 0 -1
-1.4790564 0.034315348 -0.14241099 0 -1
-1.4683068 0.053775787 -0.14405537 3 5
-1.4503765 0.06690073 -0.14241147 3 5
-1.4337857 0.081160307 -0.14142597 3 5
-1.4073679 0.086377144 -0.13583696 3 5
-1.7646956 0.44701529 -0.31243336 0 -1
-1.7699077 0.48577237 -0.32295966 0 -1
-1.7884493 0.53770351 -0.34006357 0 -1
-1.8507099 0.63251424 -0.37854397 0 -1
-1.8630977 0.71733522 -0.40223217 0 -1
-1.8713555 0.76269078 -0.41539276 0 -1
-1.8831577 0.81228566 -0.43052733 0 -1
-1.8691883 0.87489104 -0.44271111 0 -1
-1.8451741 0.88881779 -0.44041789 0 -1
-1.8288777 0.91081572 -0.44207191 0 -1
-1.7886131 0.907161 -0.43155825 0 -1
-1.7759988 0.93302107 -0.43518651 0 -1
-1.7612739 0.95674896 -0.4378289 0 -1
-1.7621388 0.99798822 -0.44869411 0 -1
-1.7212625 0.9927175 -0.43785369 0 -1
-1.6786964 0.98493886 -0.4260273 0 -1
-1.6523964 0.99533439 -0.42275214 0 -1
-1.6113575 0.98829699 -0.4115845 0 -1
-1.4992669 0.89642739 -0.36193645 0 -1
-1.4651821 0.89545488 -0.35405803 0 -1
-1.4432118 0.90876985 -0.35275793 0 -1
-1.4366624 0.94098997 -0.36000991 0 -1
-1.4434111 0.99018931 -0.37482762 0 -1
-1.4408562 1.0284886 -0.3847127 0 -1
-1.4326925 1.0601864 -0.39163816 0 -1
-1.4057608 1.0679948 -0.38803899 0 -1
-1.4023185 1.1063812 -0.39792645 0 -1
-1.4019115 1.1493764 -0.40978813 0 -1
-1.3785312 1.1621833 -0.40849352 0 -1
-1.3590031 1.1801605 -0.40950203 0 -1
-1.332701 1.188853 -0.40656376 0 -1
-1.3602436 1.2726147 -0.43586302 0 -1
-1.3203828 1.2627404 -0.42503154 0 -1
-1.1646192 1.0859621 -0.34347403 0 -1
-1.1561987 1.1182392 -0.35106397 0 -1
-1.1389809 1.1380391 -0.35339105 0 -1
-1.114248 1.1467736 -0.3511132 0 -1
-1.1410692 1.2333105 -0.381405 0 -1
-1.2117169 1.4387045 -0.45482445 0 -1
-1.1832502 1.4446013 -0.45123458 0 -1
-1.1337388 1.4166815 -0.43382704 0 -1
-1.1124673 1.4332778 -0.43484402 0 -1
-1.1156616 1.4900649 -0.45231271 0 -1
0.027765155 1.4341092 -0.27024126 3 4
0.053922057 1.430335 -0.26633668 3 4
0.079448462 1.4281902 -0.26309133 3 4
0.10358286 1.4304037 -0.26149321 3 4
0.12640727 1.4370012 -0.26154268 3 4
0.13380992 1.498939 -0.28168893 3 4
1.1638865 -0.48429811 0.45972639 2 0
1.1756989 -0.57477415 0.4913817 2 0
1.1862113 -0.57470381 0.49135137 2 0
1.1967052 -0.57941782 0.49297142 2 0
-1.2732141 -1.3175395 0.11919302 0 -1
-1.1189828 -1.3616194 0.17772442 0 -1
-1.0949934 -1.354883 0.18497139 0 -1
-1.0632 -1.351635 0.19531512 0 -1
-1.0530894 -1.3396385 0.19705427 0 -1
-1.0498219 -1.3247752 0.19603974 0 -1
-1.0542049 -1.3065445 0.19192761 0 -1
-1.0584481 -1.288224 0.18781531 0 -1
-1.0548449 -1.2732817 0.18680006 0 -1
-1.0426035 -1.2622508 0.18922567 0 -1
-1.04649 -1.2438135 0.18511266 0 -1
-1.0459886 -1.2272947 0.18272001 0 -1
-1.0352099 -1.2156162 0.18445635 0 -1
-1.0319688 -1.2003285 0.18309534 0 -1
-1.0311484 -1.183791 0.18070179 0 -1
-1.0318868 -1.1663798 0.17761981 0 -1
-1.0350039 -1.1476381 0.17350525 0 -1
-1.0304706 -1.1327027 0.17248732 0 -1
-1.0266693 -1.1173431 0.17112494 0 -1
-1.0252481 -1.1006608 0.16872996 0 -1
-1.0278339 -1.0817167 0.16461444 0 -1
-1.0187495 -1.0690265 0.16531551 0 -1
-1.6640582 -0.69157505 -0.10853803 0 -1
-1.6811895 -0.65883636 -0.11987567 0 -1
-1.6898813 -0.63050067 -0.12777328 0 -1
-1.5273595 -0.61080825 -0.080226898 0 -1
-1.5624411 -0.56584334 -0.099823833 0 -1
-1.5065906 -0.5775795 -0.080202818 0 -1
-1.4834037 -0.56916595 -0.074687243 0 -1
-1.4767532 -0.55023324 -0.076396465 0 -1
-1.4589896 -0.53854406 -0.073289871 0 -1
-1.839299 -0.067697763 -0.28615129 0 -1
-1.5207286 -0.27484655 -0.14717388 3 5
-1.5105886 -0.25655866 -0.14819968 3 5
-1.4569535 -0.27125525 -0.12927496 3 5
-1.4363513 -0.26134491 -0.12548602 3 5
-1.3579454 -0.29661572 -0.094867349 3 5
-1.3368404 -0.28799319 -0.090735435 3 5
-1.3245301 -0.27252221 -0.090731859 3 5
-1.3179653 -0.25240278 -0.093480706 3 5
-1.3112483 -0.2322886 -0.096229792 3 5
-1.3079929 -0.20918345 -0.10069931 3 5
-1.3081429 -0.18302274 -0.10688913 3 5
-1.3037736 -0.16043115 -0.11101556 3 5
-1.4315848 -0.023874044 -0.17912149 0 -1
-1.4884398 0.053865194 -0.2135185 0 -1
-1.4761431 0.072121859 -0.2145505 3 5
-1.4630227 0.089689732 -0.21523917 3 5
-1.4031279 0.064985991 -0.19288218 3 5
-1.4025028 0.093537092 -0.1997633 3 5
-1.4126425 0.13238168 -0.21214867 3 5
-1.6524661 0.38733053 -0.34011018 0 -1
-1.7081704 0.47327304 -0.37657511 0 -1
-1.6620846 0.46301556 -0.36178851 0 -1
-1.5132983 0.35208106 -0.29437351 0 -1
-1.5137794 0.38509727 -0.30297816 0 -1
-1.6369276 0.54091072 -0.37521982 0 -1
-1.8527327 0.79374695 -0.49665213 0 -1
-1.8226202 0.80094337 -0.49081218 0 -1
-1.8225451 0.83895135 -0.50079608 0 -1
-1.8240612 0.87911177 -0.51181269 0 -1
-1.8187566 0.91257429 -0.51939011 0 -1
-1.791399 0.92272615 -0.5152725 0 -1
-1.761487 0.92989802 -0.50977981 0 -1
-1.7473853 0.95419931 -0.51288736 0 -1
-1.7249429 0.96936297 -0.5115236 0 -1
-1.6874774 0.96750975 -0.50190425 0 -1
-1.6458147 0.96037531 -0.48987746 0 -1
-1.6111042 0.96066618 -0.48163521 0 -1
-1.5801566 0.96493793 -0.47545755 0 -1
-1.5438128 0.96249294 -0.46618414 0 -1
-1.484164 0.93159151 -0.44349456 0 -1
-1.4434927 0.92255974 -0.43146968 0 -1
-1.4125068 0.92481089 -0.42494965 0 -1
-1.3962846 0.94511127 -0.42703068 0 -1
-1.3659151 0.94767165 -0.42085564 0 -1
-1.3454487 0.96255255 -0.4205296 0 -1
-1.3214514 0.97284579 -0.41814005 0 -1
-1.3031187 0.99043226 -0.41919136 0 -1
-1.2761903 0.99666691 -0.41508257 0 -1
-1.2554433 1.0109825 -0.4147588 0 -1
-1.2385035 1.0304646 -0.41684401 0 -1
-1.2230697 1.0521438 -0.41996205 0 -1
-1.208554 1.0752854 -0.423769 0 -1
-1.1934416 1.1422038 -0.4406749 0 -1
-1.185138 1.1753259 -0.4489572 0 -1
-1.1485596 1.1673069 -0.43900347 0 -1
-1.1529429 1.2198071 -0.45588946 0 -1
-1.1355333 1.2403798 -0.45866859 0 -1
-1.168761 1.3387151 -0.49551499 0 -1
-1.1180129 1.3089087 -0.47627258 0 -1
-1.160358 1.424444 -0.52034843 0 -1
-1.1425362 1.4467483 -0.52381945 0 -1
-1.1255169 1.4705706 -0.52797937 0 -1
-1.0877624 1.4606547 -0.51768625 0 -1
-1.0773149 1.4954772 -0.52666569 0 -1
0.051294923 1.4678476 -0.34995699 3 4
0.089928389 1.4225907 -0.33002353 3 4
0.11665034 1.4157541 -0.32490468 3 4
0.14170182 1.4141459 -0.32185304 3 4
0.16190457 1.4295516 -0.3253485 3 4
0.17141199 1.4847045 -0.34400594 3 4
0.19095337 1.5044928 -0.34922636 3 4
0.20669818 1.5396318 -0.36030567 3 4
1.1947174 -0.61383498 0.47496861 2 0
-1.0669713 -1.3657783 0.17132354 0 -1
-1.0655963 -1.3501444 0.16957963 0 -1
-1.0675628 -1.3330364 0.16642541 0 -1
-1.065105 -1.3177159 0.16503346 0 -1
-1.0659742 -1.3008915 0.16223139 0 -1
-1.1017876 -1.2684458 0.14497721 0 -1
-1.318105 -1.1538855 0.052999198 0 -1
-1.617301 -0.99799824 -0.073870063 0 -1
-1.5677826 -1.0001729 -0.056578875 0 -1
-1.6114249 -0.95882785 -0.07805872 0 -1
-1.6023819 -0.942065 -0.077686548 0 -1
-1.5503616 -0.94632614 -0.059340239 0 -1
-1.5387332 -0.93119681 -0.057911873 0 -1
-1.4894187 -0.93511891 -0.040624499 0 -1
-1.491905 -0.91315508 -0.045188546 0 -1
-1.2542329 -1.0158215 0.052096605 0 -1
-1.0402768 -1.1095561 0.13986331 0 -1
-1.0445602 -1.0897019 0.13494319 0 -1
-1.0355263 -1.0768983 0.1356613 0 -1
-1.846833 -0.61195827 -0.2163738 0 -1
-1.7613559 -0.63537633 -0.18393612 0 -1
-1.7544262 -0.61544871 -0.18532932 0 -1
-1.5323825 -0.58284485 -0.11968863 0 -1
-1.4594359 -0.60575581 -0.091840386 0 -1
-1.4073448 -0.61634076 -0.07315433 0 -1
-1.3884213 -0.60604894 -0.069268107 0 -1
-1.4889724 -0.51704788 -0.11929154 0 -1
-1.53631 -0.28701639 -0.18334866 3 5
-1.5209854 -0.27255464 -0.18193269 3 5
-1.5048378 -0.2587676 -0.18016505 3 5
-1.4826667 -0.24963856 -0.17557919 3 5
-1.459744 -0.2412765 -0.17064142 3 5
-1.4301817 -0.23830295 -0.1625334 3 5
-1.3669171 -0.262321 -0.138219 3 5
-1.3420315 -0.25661254 -0.13222611 3 5
-1.3455203 -0.22814155 -0.13997388 3 5
-1.3436916 -0.20370984 -0.14525616 3 5
-1.4107389 -0.12177849 -0.18436122 3 5
-1.7310224 0.17503786 -0.34853971 0 -1
-1.7208526 0.19716406 -0.3510046 0 -1
-1.6283391 0.1483233 -0.31260109 0 -1
-1.4956627 0.062725782 -0.25376379 0 -1
-1.4706862 0.069859505 -0.24847925 3 5
-1.438055 0.069907188 -0.2393198 3 5
-1.4561327 0.11553788 -0.25588 3 5
-1.4834006 0.17033887 -0.27737319 3 5
-1.4888434 0.20581102 -0.28794503 3 5
-1.4476025 0.19783187 -0.27455986 3 5
-1.4424765 0.22365236 -0.27984798 3 5
-1.6331758 0.43854427 -0.38766229 0 -1
-1.6659641 0.50419116 -0.41373909 0 -1
-1.590878 0.46443009 -0.38309228 0 -1
-1.6473918 0.5549109 -0.42220628 0 -1
-1.7911983 0.92691803 -0.56072342 0 -1
-1.7524531 0.92445636 -0.55016422 0 -1
-1.7182491 0.92649579 -0.54207206 0 -1
-1.6660314 0.90801358 -0.52376235 0 -1
-1.6308863 0.90794539 -0.51496625 0 -1
-1.6032367 0.91602612 -0.51039898 0 -1
-1.5658152 0.9125495 -0.50019443 0 -1
-1.5285411 0.9087348 -0.48999047 0 -1
-1.4853935 0.89742303 -0.4762634 0 -1
-1.4550471 0.90081978 -0.46993601 0 -1
-1.3873596 0.85838652 -0.44141018 0 -1
-1.3090978 0.8014307 -0.40618932 0 -1
-1.2892737 0.89486027 -0.42914486 0 -1
-1.2697113 0.91001105 -0.42916322 0 -1
-1.2500567 0.92504168 -0.42918205 0 -1
-1.2280617 0.93695831 -0.42779183 0 -1
-1.2004375 0.94120955 -0.42287815 0 -1
-1.2016022 0.98450732 -0.43629014 0 -1
-1.1836848 1.0021524 -0.43772089 0 -1
-1.1737945 1.0311272 -0.4444387 0 -1
-1.1684875 1.0669897 -0.45432889 0 -1
-1.1772535 1.1236575 -0.47373545 0 -1
-1.1875293 1.1836429 -0.49455297 0 -1
-1.1745944 1.2105608 -0.50021696 0 -1
-1.1634982 1.2405624 -0.50729156 0 -1
-1.1696398 1.2971208 -0.52635014 0 -1
-1.1818104 1.3640823 -0.54999173 0 -1
-1.1613955 1.3817129 -0.55142987 0 -1
-1.1558764 1.4229469 -0.56344271 0 -1
-1.137542 1.4444103 -0.56664479 0 -1
-1.1151035 1.4594138 -0.56702769 0 -1
-1.0862496 1.4638875 -0.5628289 0 -1
0.011858225 1.4406724 -0.38419592 3 4
0.031137824 1.4594467 -0.38883126 3 4
0.064205408 1.4333615 -0.37582409 3 4
0.095043182 1.4132915 -0.36528683 3 4
0.11880541 1.4163456 -0.36392426 3 4
0.14205277 1.4210479 -0.3632679 3 4
0.15331721 1.4688833 -0.37955165 3 4
0.17124128 1.4941387 -0.38701415 3 4
0.19278085 1.50665 -0.38953626 3 4
0.21513593 1.5163207 -0.39100027 0 -1
0.23028165 1.554899 -0.40375972 0 -1
0.25697714 1.5479903 -0.39887166 0 -1
0.30430466 1.5582371 -0.39862692 0 -1
0.32605785 1.5718131 -0.40185905 0 -1
0.61345708 1.458575 -0.3403374 0 -1
1.182958 -0.49256706 0.41224545 2 0
1.1941373 -0.69646502 0.48928702 2 0
-1.1810758 -1.3359964 0.094180346 0 -1
-1.0699942 -1.3645189 0.13849914 0 -1
-1.0522487 -1.3556763 0.14360112 0 -1
-1.0507805 -1.3401097 0.14180392 0 -1
-1.0937014 -1.305351 0.12112594 0 -1
-1.6406434 -1.049005 -0.11413097 0 -1
-1.3972411 -1.1366974 -0.013538241 0 -1
-1.4215405 -1.1066148 -0.026952028 0 -1
-1.4294856 -1.0835943 -0.03346765 0 -1
-1.4853537 -1.0379294 -0.06067729 0 -1
-1.4986804 -1.0115336 -0.069734335 0 -1
-1.4673114 -1.0063987 -0.059550047 0 -1
-1.4309616 -1.0040612 -0.04718852 0 -1
-1.4197059 -0.98965991 -0.04571867 0 -1
-1.4208453 -0.96904123 -0.049694419 0 -1
-1.392817 -0.96325433 -0.040964961 0 -1
-1.2061656 -1.040441 0.037462354 0 -1
-1.0839841 -1.0863149 0.087935448 0 -1
-1.0527661 -1.0851581 0.09847647 0 -1
-1.3186474 -0.92253411 -0.022751689 0 -1
-1.3803637 -0.86839712 -0.053954601 0 -1
-1.7763567 -0.6256907 -0.23470831 0 -1
-1.7766411 -0.60152996 -0.23941088 0 -1
-1.6986527 -0.57478464 -0.21831191 0 -1
-1.6880975 -0.55709052 -0.2182976 0 -1
-1.6464107 -0.55838811 -0.20412827 0 -1
-1.6230757 -0.54885733 -0.19830763 0 -1
-1.510524 -0.5954839 -0.15147352 0 -1
-1.4214582 -0.62892711 -0.11516643 0 -1
-1.4198549 -0.60737967 -0.1191479 0 -1
-1.4773817 -0.54707193 -0.1507138 0 -1
-1.7516539 -0.15512252 -0.32521129 0 -1
-1.5350139 -0.28661656 -0.22685122 3 5
-1.5167129 -0.27438211 -0.22394121 3 5
-1.5013411 -0.26005316 -0.2224834 3 5
-1.4836731 -0.24753356 -0.21993732 3 5
-1.4696393 -0.23230433 -0.21920633 3 5
-1.4643238 -0.2102778 -0.22283089 3 5
-1.4632192 -0.18476582 -0.2286334 3 5
-1.4619007 -0.15918994 -0.23443627 3 5
-1.7886252 0.13331246 -0.40500271 0 -1
-1.7478271 0.13022184 -0.39193475 0 -1
-1.7515578 0.16371393 -0.40136814 0 -1
-1.7314878 0.17750835 -0.39882565 0 -1
-1.6954024 0.20829415 -0.39592028 0 -1
-1.606446 0.16148257 -0.35781419 0 -1
-1.4630978 0.064833641 -0.29103875 3 5
-1.5269735 0.15141463 -0.33204854 0 -1
-1.519552 0.17493367 -0.33604193 0 -1
-1.5201724 0.20602536 -0.34439075 0 -1
-1.6241474 0.33376122 -0.40790296 0 -1
-1.6364932 0.37782931 -0.42314851 0 -1
-1.6227927 0.39769459 -0.42460382 0 -1
-1.6190052 0.42720532 -0.43150353 0 -1
-1.6136291 0.45546675 -0.43767786 0 -1
-1.5901368 0.46605825 -0.43405426 0 -1
-1.5935981 0.50351667 -0.44531059 0 -1
-1.5849333 0.52917171 -0.45003521 0 -1
-1.5780075 0.55682802 -0.45584917 0 -1
-1.5850534 0.59928393 -0.469648 0 -1
-1.8210101 0.92263865 -0.6242733 0 -1
-1.7746718 0.9123404 -0.60904062 0 -1
-1.7310901 0.90434527 -0.59526026 0 -1
-1.6845942 0.89248085 -0.57966554 0 -1
-1.6389749 0.88086271 -0.56443429 0 -1
-1.5011525 0.7639811 -0.49476206 0 -1
-1.3820112 0.66520739 -0.43525183 0 -1
-1.2582719 0.66645408 -0.40445483 0 -1
-1.2967763 0.75063658 -0.43931377 0 -1
-1.2482219 0.72888088 -0.42081821 0 -1
-1.2398303 0.83427095 -0.45099485 0 -1
-1.2126284 0.87869382 -0.45829093 0 -1
-1.202667 0.90604973 -0.46448112 0 -1
-1.2268217 0.97984362 -0.49317741 0 -1
-1.2133355 1.0036378 -0.49755418 0 -1
-1.1914735 1.0160522 -0.49648666 0 -1
-1.2111568 1.0867734 -0.52337122 0 -1
-1.2145257 1.1357479 -0.53972983 0 -1
-1.1950819 1.1527307 -0.54084265 0 -1
-1.1855199 1.1842127 -0.54885352 0 -1
-1.1720102 1.2103012 -0.55432403 0 -1
-1.1644711 1.2456572 -0.56415176 0 -1
-1.154027 1.2771592 -0.57216525 0 -1
-1.1564744 1.3289859 -0.58961868 0 -1
-1.1342535 1.3433108 -0.5896467 0 -1
-1.1134381 1.3598621 -0.59076476 0 -1
-1.1033497 1.3936913 -0.59987068 0 -1
-1.0895174 1.4219766 -0.60643601 0 -1
-1.0783219 1.4550099 -0.61518073 0 -1
-0.084586501 1.3581576 -0.41599953 0 -1
-0.063716412 1.3703139 -0.4178617 0 -1
-0.040665746 1.3761699 -0.41718078 0 -1
0.0037913322 1.3927667 -0.41800058 0 -1
0.032560825 1.3804314 -0.41005218 0 -1
0.055628657 1.3856828 -0.40937269 0 -1
0.085193038 1.3693895 -0.39997089 3 4
0.09653759 1.4136171 -0.41528463 3 4
0.12106919 1.4139912 -0.41278934 3 4
0.14835155 1.4043427 -0.4062959 3 4
0.16679883 1.4259293 -0.41252518 3 4
0.18329012 1.4555233 -0.42202699 0 -1
0.20839667 1.4535196 -0.41880643 0 -1
0.2336719 1.4504468 -0.41522253 0 -1
0.25729179 1.4535315 -0.41418374 0 -1
0.27937186 1.4628034 -0.41569018 0 -1
0.29809523 1.4864483 -0.42301452 0 -1
0.31812 1.5054648 -0.42852199 0 -1
0.3428238 1.5043786 -0.42603087 0 -1
0.37163913 1.4840164 -0.41590405 0 -1
0.3913216 1.5053716 -0.42250395 0 -1
0.41441125 1.5111117 -0.42292297 0 -1
0.44025987 1.5030053 -0.41788757 0 -1
0.46615583 1.4938107 -0.41248834 0 -1
0.51818067 1.4712315 -0.40023541 0 -1
0.54997933 1.4247985 -0.38028789 0 -1
0.59205699 1.3128829 -0.33451462 0 -1
0.61031425 1.3403971 -0.3440268 0 -1
0.62817734 1.3724251 -0.35535896 0 -1
0.64968121 1.3822536 -0.35796189 0 -1
1.1686349 -0.28546453 0.30810022 2 0
1.1838797 -0.79479957 0.50724053 2 0
1.1930308 -0.8310976 0.52141547 2 0
-1.070049 -1.3810649 0.10132617 0 -1
-1.0558765 -1.3707252 0.10510749 0 -1
-1.0510666 -1.3565972 0.10474986 0 -1
-1.0683393 -1.3330734 0.094609857 0 -1
-1.7836795 -1.007555 -0.22440648 0 -1
-1.7409995 -1.0046134 -0.20895839 0 -1
-1.4584665 -1.0898006 -0.090034246 0 -1
-1.446867 -1.0755097 -0.088133454 0 -1
-1.4444199 -1.056988 -0.09037137 0 -1
-1.4769752 -1.0217119 -0.10840905 0 -1
-1.4291327 -1.0247437 -0.090333819 0 -1
-1.4096999 -1.0144154 -0.085049272 0 -1
-1.3935554 -1.0026222 -0.081270099 0 -1
-1.388108 -0.98553276 -0.082381248 0 -1
-1.2787421 -1.0218847 -0.036097527 0 -1
-1.1206467 -1.0852683 0.032753468 0 -1
-1.0510166 -1.1040947 0.061354756 0 -1
-1.0494282 -1.087286 0.05873549 0 -1
-1.3982184 -0.87906468 -0.10599768 0 -1
-1.3935862 -0.86096096 -0.10786331 0 -1
-1.7660382 -0.63084888 -0.28537941 0 -1
-1.8845308 -0.48905802 -0.35566473 0 -1
-1.6647997 -0.59432292 -0.25710893 0 -1
-1.6583321 -0.57444441 -0.25897527 0 -1
-1.6185272 -0.57488298 -0.24504602 0 -1
-1.6032488 -0.56061018 -0.24277627 0 -1
-1.5494595 -0.57061815 -0.22207868 0 -1
-1.4333797 -0.62104547 -0.17129457 0 -1
-1.4059868 -0.61603403 -0.16300976 0 -1
-1.6306162 -0.44640422 -0.27695239 0 -1
-1.661747 -0.40096545 -0.2976259 0 -1
-1.8926733 -0.19296503 -0.42246175 0 -1
-1.8973162 -0.1619885 -0.43110096 0 -1
-1.8735952 -0.15051889 -0.42582595 0 -1
-1.8649733 -0.12854981 -0.42807293 0 -1
-1.7304664 -0.19680929 -0.36751759 0 -1
-1.6036606 -0.26172996 -0.31034791 3 5
-1.5382071 -0.28362799 -0.2836405 3 5
-1.5176976 -0.27301741 -0.27949703 3 5
-1.5008581 -0.25979114 -0.27723467 3 5
-1.4905825 -0.24162865 -0.27835715 3 5
-1.480185 -0.22351623 -0.27948022 3 5
-1.4754987 -0.20087886 -0.28361225 3 5
-1.4829686 -0.16842389 -0.2941376 3 5
-1.7334452 0.059933186 -0.43139267 0 -1
-1.754477 0.13690114 -0.45770955 0 -1
-1.7452466 0.15967202 -0.46071553 0 -1
-1.7372627 0.18361712 -0.46447408 0 -1
-1.7058682 0.18766856 -0.45582366 0 -1
-1.6899378 0.20478153 -0.45544672 0 -1
-1.6746027 0.22240353 -0.45544648 0 -1
-1.6501558 0.23192978 -0.45055819 0 -1
-1.6194994 0.23567343 -0.44228601 0 -1
-1.6087716 0.25723004 -0.44491971 0 -1
-1.6019719 0.28251839 -0.44981027 0 -1
-1.5963221 0.30908298 -0.45545352 0 -1
-1.5783281 0.32421923 -0.45432842 0 -1
-1.5723059 0.35076189 -0.45997286 0 -1
-1.5720525 0.38313007 -0.46900225 0 -1
-1.557611 0.4019711 -0.47013521 0 -1
-1.5410686 0.41877675 -0.47014046 0 -1
-1.5139649 0.42497325 -0.46412957 0 -1
-1.4881873 0.43226075 -0.45887125 0 -1
-1.4714603 0.44864011 -0.45887816 0 -1
-1.4790096 0.49032497 -0.47317588 0 -1
-1.4319704 0.4750371 -0.45550895 0 -1
-1.3972507 0.47213054 -0.44498777 0 -1
-1.3507135 0.45597744 -0.42732167 0 -1
-1.3132212 0.44893622 -0.41492081 0 -1
-1.3187399 0.48900962 -0.42846942 0 -1
-1.3312585 0.53755307 -0.44653165 0 -1
-1.3083782 0.54670858 -0.44315815 0 -1
-1.3055432 0.57876492 -0.45219588 0 -1
-1.2830913 0.58839726 -0.44919968 0 -1
-1.2749994 0.61482239 -0.45523 0 -1
-1.2094693 0.64534593 -0.44775033 0 -1
-1.2078254 0.75600266 -0.48239911 0 -1
-1.256768 0.85772586 -0.52717364 0 -1
-1.2819908 0.93075299 -0.55690515 0 -1
-1.2963393 0.99091053 -0.5798676 0 -1
-1.3272445 1.0743647 -0.61449111 0 -1
-1.3352027 1.1285019 -0.63407087 0 -1
-1.3065684 1.1334438 -0.62882674 0 -1
-1.2682266 1.1246266 -0.61681259 0 -1
-1.2424285 1.1328425 -0.61344993 0 -1
-1.2107711 1.1325252 -0.60595012 0 -1
-1.1976643 1.1586151 -0.61161613 0 -1
-1.1858954 1.1869676 -0.61841166 0 -1
-1.1738687 1.2153046 -0.62520778 0 -1
-1.1554244 1.2343667 -0.62749052 0 -1
-1.1490388 1.2719235 -0.63880241 0 -1
-1.133213 1.2955348 -0.64334369 0 -1
-1.1181841 1.3206472 -0.64863837 0 -1
-1.0999687 1.3410065 -0.65167642 0 -1
-1.1016529 1.3935363 -0.67013955 0 -1
-1.0896974 1.4248972 -0.67844617 0 -1
-0.083400488 1.3573389 -0.47844028 0 -1
-0.060424089 1.3633282 -0.47773254 0 -1
-0.036538839 1.3665376 -0.47589552 0 -1
-0.012082934 1.3678317 -0.47330594 0 -1
0.03021872 1.3134055 -0.44699335 0 -1
0.058168888 1.3018966 -0.43913162 0 -1
0.083205104 1.2990339 -0.43503582 0 -1
0.093986988 1.3430064 -0.45089948 0 -1
0.11863077 1.3416646 -0.44755781 0 -1
0.13628876 1.3641901 -0.45438492 0 -1
0.15393186 1.3875263 -0.46158969 0 -1
0.17673516 1.3929191 -0.46126258 0 -1
0.19716346 1.4071169 -0.46470237 0 -1
0.21819717 1.41941 -0.46738958 0 -1
0.24278253 1.4181201 -0.46442711 0 -1
0.26664418 1.4193656 -0.46259511 0 -1
0.28961295 1.4240587 -0.46227014 0 -1
0.31473106 1.4195938 -0.45817852 0 -1
0.33996785 1.4140582 -0.45371056 0 -1
0.36147499 1.4246268 -0.45602369 0 -1
0.42547023 1.461026 -0.46522796 0 -1
0.45295739 1.442925 -0.455863 0 -1
0.48036778 1.4237192 -0.44612122 0 -1
0.50667357 1.4088728 -0.43826318 0 -1
0.53781217 1.3655758 -0.41872323 0 -1
0.56949288 1.3156481 -0.39654422 0 -1
0.58963388 1.3312659 -0.40149808 0 -1
0.60848463 1.3559191 -0.41022146 0 -1
0.62957859 1.3676574 -0.41366947 0 -1
0.65119809 1.3765242 -0.41598749 0 -1
1.1568851 -0.37271082 0.31115162 2 0
1.1722212 -0.69850504 0.44390649 2 0
1.1827272 -0.85307026 0.50688016 2 0
1.1913563 -0.99287891 0.56382287 2 0
-1.0606625 -1.3649335 0.056820452 0 -1
-1.0473127 -1.3543108 0.060358524 0 -1
-1.039005 -1.3416679 0.061549783 0 -1
-1.0390821 -1.3254584 0.058830202 0 -1
-1.7871137 -0.98233128 -0.29074538 0 -1
-1.7832637 -0.96221948 -0.29267764 0 -1
-1.3794739 -1.0263323 -0.12559199 0 -1
-1.3890045 -1.0019889 -0.13378549 0 -1
-1.4837995 -0.93437862 -0.1826421 0 -1
-1.5614493 -0.74351788 -0.2497735 0 -1
-1.7136378 -0.63491046 -0.32873023 0 -1
-1.7289801 -0.60243344 -0.34122479 0 -1
-1.673286 -0.61100256 -0.31892598 0 -1
-1.65345 -0.59909117 -0.31422019 0 -1
-1.6312087 -0.58878124 -0.30834222 0 -1
-1.6435425 -0.55762506 -0.31966567 0 -1
-1.592936 -0.56492138 -0.29971516 0 -1
-1.5316021 -0.57960558 -0.27429271 0 -1
-1.5358491 -0.5535723 -0.28170848 0 -1
-1.4740641 -0.56972361 -0.25589657 0 -1
-1.4125814 -0.58656561 -0.23008561 0 -1
-1.8514643 -0.2739718 -0.45875788 0 -1
-1.8214684 -0.26712108 -0.44975579 0 -1
-1.8227401 -0.23938656 -0.45678127 0 -1
-1.8359232 -0.20322299 -0.47006166 0 -1
-1.8193119 -0.18732715 -0.46809733 0 -1
-1.7905829 -0.18004251 -0.45987928 0 -1
-1.7753606 -0.16340089 -0.45869792 0 -1
-1.712321 -0.18139911 -0.43250012 0 -1
-1.6674325 -0.18702984 -0.41568434 3 5
-1.5059557 -0.27981997 -0.33710873 3 5
-1.4847679 -0.26995397 -0.332412 3 5
-1.4716153 -0.25413728 -0.33201551 3 5
-1.4598272 -0.23728228 -0.33240139 3 5
-1.4486578 -0.2199285 -0.33317852 3 5
-1.4417067 -0.19920874 -0.33630157 3 5
-1.4360368 -0.17734575 -0.34020686 3 5
-1.4687991 -0.12416244 -0.36521995 3 5
-1.72648 0.11469531 -0.51414227 0 -1
-1.6883442 0.1131196 -0.50124073 0 -1
-1.6904697 0.14496183 -0.51062012 0 -1
-1.6299756 0.12377 -0.48521161 0 -1
-1.6102624 0.13681483 -0.48247492 0 -1
-1.6029699 0.16061163 -0.48677421 0 -1
-1.596869 0.18562913 -0.49185586 0 -1
-1.5795972 0.20083737 -0.49068415 0 -1
-1.5663342 0.21963644 -0.49185812 0 -1
-1.5468431 0.23276377 -0.48951483 0 -1
-1.5212269 0.24010682 -0.48365414 0 -1
-1.4862394 0.23839951 -0.47232151 0 -1
-1.4213855 0.20779014 -0.44339991 0 -1
-1.382848 0.20140123 -0.42972302 0 -1
-1.3286808 0.1792028 -0.40666533 0 -1
-1.3233287 0.20431447 -0.41253364 0 -1
-1.2936876 0.20536542 -0.4039396 0 -1
-1.2951696 0.2375865 -0.41410851 0 -1
-1.2976346 0.27123618 -0.4250598 0 -1
-1.2710423 0.27518177 -0.41842186 0 -1
-1.2686079 0.30423427 -0.42663801 0 -1
-1.2747355 0.34274197 -0.44032741 0 -1
-1.2572281 0.3890655 -0.44972682 0 -1
-1.2525125 0.41698861 -0.45716369 0 -1
-1.2289889 0.49198937 -0.47439635 0 -1
-1.2203159 0.51653576 -0.47988117 0 -1
-1.2094495 0.57407141 -0.4955436 0 -1
-1.2112691 0.61210012 -0.50845778 0 -1
-1.2162144 0.65452647 -0.52371836 0 -1
-1.2068219 0.67995882 -0.52959752 0 -1
-1.2483904 0.76934457 -0.5702703 0 -1
-1.3271856 0.90773273 -0.63713717 0 -1
-1.2996202 0.91295362 -0.6316818 0 -1
-1.3698342 1.0448179 -0.69425154 0 -1
-1.335422 1.0421426 -0.68449759 0 -1
-1.3641589 1.1230655 -0.71931267 0 -1
-1.3558099 1.1556699 -0.72832596 0 -1
-1.3384573 1.1764174 -0.73108459 0 -1
-1.3080051 1.1791782 -0.7244606 0 -1
-1.2867026 1.1944332 -0.72448373 0 -1
-1.2244973 1.1516163 -0.6944021 0 -1
-1.1886551 1.1451998 -0.68347847 0 -1
-1.1753738 1.171108 -0.68936753 0 -1
-1.1696053 1.2084131 -0.7011224 0 -1
-1.7750959 2.1610043 -1.1805136 0 -1
-1.7209129 2.1383755 -1.1598237 0 -1
-1.1558931 1.4284029 -0.77633345 0 -1
-1.1301391 1.4380362 -0.7740171 0 -1
-1.0833232 1.4646385 -0.77329659 0 -1
-1.0550683 1.4698262 -0.76902688 0 -1
-0.06451726 1.3763442 -0.55599236 0 -1
-0.037609339 1.3708906 -0.55016792 0 -1
-0.016886473 1.3835926 -0.55256236 0 -1
0.079512954 1.3128998 -0.51160681 0 -1
0.10241592 1.3170016 -0.51047945 0 -1
0.12480271 1.3227217 -0.51013553 0 -1
0.15055704 1.3168154 -0.50470316 0 -1
0.16966391 1.3337448 -0.50944877 0 -1
0.18967664 1.3479152 -0.51302075 0 -1
0.20693964 1.3726337 -0.52129102 0 -1
0.2359845 1.3536828 -0.51037955 0 -1
0.28138649 1.3624322 -0.50930572 0 -1
0.31209469 1.3339705 -0.49447882 0 -1
0.36841381 1.2933695 -0.47226298 0 -1
0.38917619 1.3037269 -0.4746635 0 -1
0.40885466 1.3193574 -0.47941411 0 -1
0.43118 1.3231797 -0.47907472 0 -1
0.45259446 1.3313701 -0.48069382 0 -1
0.47624201 1.3286054 -0.47761393 0 -1
0.50035155 1.3229768 -0.47335947 0 -1
0.52385837 1.3199024 -0.47028017 0 -1
0.5482825 1.3112428 -0.46485102 0 -1
0.57510161 1.2879164 -0.45315528 0 -1
0.5947547 1.3052311 -0.45908475 0 -1
0.61709231 1.3069973 -0.45835614 0 -1
0.64253634 1.2886221 -0.44901037 0 -1
0.66583437 1.2828116 -0.44514847 0 -1
0.67824471 1.3524497 -0.47380078 0 -1
0.7026931 1.3400216 -0.46719813 0 -1
0.72922873 1.3100965 -0.4531517 0 -1
0.75096023 1.3155928 -0.45438409 0 -1
0.77521908 1.2999423 -0.44660568 0 -1
0.79814637 1.2941887 -0.44313693 0 -1
0.8197335 1.3001835 -0.44476199 0 -1
0.84310591 1.2886531 -0.43894279 0 -1
0.86521447 1.2888803 -0.4382174 0 -1
0.88787025 1.2825549 -0.43474936 0 -1
1.1970928 -0.93184853 0.51363701 2 0
-1.8826485 -2.3022747 -0.24895465 0 -1
-1.8634391 -2.2834496 -0.24051476 0 -1
-1.7644606 -2.0656247 -0.20042431 0 -1
-1.7347252 -2.0498047 -0.18799984 0 -1
-1.7797956 -2.027781 -0.20832908 0 -1
-1.7854562 -2.0088766 -0.21148288 0 -1
-1.7946448 -1.9895284 -0.21623433 0 -1
-1.7973263 -1.9707347 -0.21819007 0 -1
-1.801712 -1.9516921 -0.220945 0 -1
-1.7986925 -1.9334477 -0.22050512 0 -1
-1.0623286 -1.3670166 0.031824589 0 -1
-1.0481734 -1.3567252 0.035832405 0 -1
-1.042424 -1.343003 0.035850644 0 -1
-1.0382755 -1.3285921 0.035070539 0 -1
-1.8104057 -0.97483158 -0.3342936 0 -1
-1.8400128 -0.93968761 -0.35222065 0 -1
-1.8810003 -0.89884615 -0.37573195 0 -1
-0.32520175 -1.4623208 0.33999681 4 2
-1.5729792 -0.60346997 -0.31674194 0 -1
-1.5906966 -0.56920862 -0.33108532 0 -1
-1.6500771 -0.50839996 -0.36696303 0 -1
-1.5043697 -0.57647371 -0.29756343 0 -1
-1.4730017 -0.57336283 -0.28678524 0 -1
-1.471663 -0.55104697 -0.29155982 0 -1
-1.7487044 -0.34474146 -0.44148588 0 -1
-1.7733228 -0.30226779 -0.46061563 0 -1
-1.7785552 -0.27228761 -0.46977651 0 -1
-1.7608547 -0.2577486 -0.46697521 0 -1
-1.7528727 -0.2365396 -0.46935809 0 -1
-1.740994 -0.21799517 -0.46974766 0 -1
-1.7163134 -0.20858192 -0.46335912 0 -1
-1.684942 -0.20423245 -0.45338225 3 5
-1.6528873 -0.20073128 -0.44300735 3 5
-1.518558 -0.27354097 -0.3772074 3 5
-1.4995639 -0.26192164 -0.3736124 3 5
-1.4776113 -0.25268197 -0.36842322 3 5
-1.4694424 -0.23299193 -0.37081063 3 5
-1.4604094 -0.21388984 -0.37279975 3 5
-1.4519615 -0.19425297 -0.37518787 3 5
-1.4612639 -0.16030598 -0.38754523 3 5
-1.5072806 -0.096122026 -0.42063701 0 -1
-1.6177988 0.022261858 -0.49041319 0 -1
-1.5775001 0.017744303 -0.47565758 0 -1
-1.5689263 0.039405584 -0.47884572 0 -1
-1.5650756 0.065213919 -0.48482537 0 -1
-1.5540702 0.085068226 -0.48681819 0 -1
-1.5270452 0.090993881 -0.47964072 0 -1
-1.5151587 0.11004901 -0.48123598 0 -1
-1.4922125 0.11925578 -0.47645187 0 -1
-1.4685764 0.12765574 -0.47126961 0 -1
-1.4192717 0.11228418 -0.45093584 0 -1
-1.3534656 0.080790043 -0.42063415 0 -1
-1.3469102 0.10389256 -0.42542183 0 -1
-1.2644799 0.054885149 -0.38475382 0 -1
-1.2698727 0.089000702 -0.39671957 0 -1
-1.2690337 0.11750293 -0.40509737 0 -1
-1.2529368 0.13125515 -0.40430474 0 -1
-1.2471356 0.15527987 -0.40989232 0 -1
-1.2301795 0.16822839 -0.40870178 0 -1
-1.230442 0.19878888 -0.41827798 0 -1
-1.2266035 0.22548103 -0.42546213 0 -1
-1.2282174 0.2581985 -0.43623579 0 -1
-1.2219839 0.28301001 -0.44222486 0 -1
-1.2117929 0.30380774 -0.445822 0 -1
-1.2100034 0.36638594 -0.46537971 0 -1
-1.209585 0.39882874 -0.47575748 0 -1
-1.208858 0.43136525 -0.48613596 0 -1
-1.2036006 0.45915675 -0.49372387 0 -1
-1.1986914 0.48767972 -0.50171101 0 -1
-1.1947107 0.51764131 -0.5104965 0 -1
-1.2146533 0.5764327 -0.53563249 0 -1
-1.2380657 0.64050961 -0.56356072 0 -1
-1.3369746 0.79785752 -0.64373064 0 -1
-1.3630373 0.86887741 -0.67485178 0 -1
-1.3361893 0.87516832 -0.66968429 0 -1
-1.3718956 0.96040106 -0.70838439 0 -1
-1.4241362 1.0686007 -0.75944877 0 -1
-1.4236579 1.110723 -0.77382505 0 -1
-1.4016635 1.1252284 -0.77304745 0 -1
-1.3867493 1.1491249 -0.77745497 0 -1
-1.3716385 1.1729655 -0.78186333 0 -1
-1.3498323 1.1878703 -0.78148651 0 -1
-1.3134372 1.1825697 -0.77034187 0 -1
-1.2601614 1.1530654 -0.74643517 0 -1
-1.2010062 1.1140425 -0.71774256 0 -1
-1.1879559 1.1399379 -0.72374856 0 -1
-1.1803837 1.1741178 -0.7341429 0 -1
-1.1467769 1.1703658 -0.72459543 0 -1
-1.7363491 2.0988519 -1.2028499 0 -1
-1.743727 2.1687706 -1.2300053 0 -1
-1.2217655 1.4766791 -0.85393572 0 -1
-1.1858857 1.4712543 -0.84359467 0 -1
-1.1555078 1.4740872 -0.83764148 0 -1
-1.1194117 1.4673204 -0.82690203 0 -1
-1.0939651 1.4774933 -0.82493877 0 -1
-1.0571654 1.4686191 -0.8134023 0 -1
-0.069882512 1.3842444 -0.59925461 0 -1
-0.048516273 1.3953757 -0.60089743 0 -1
-0.028212547 1.4098651 -0.60413778 0 -1
0.14648104 1.4943056 -0.61770511 0 -1
0.19388163 1.4112499 -0.57742429 0 -1
0.2406922 1.3259876 -0.53634262 0 -1
0.27681649 1.2775834 -0.51203179 0 -1
0.31253433 1.2279851 -0.48732066 0 -1
0.34064156 1.2065837 -0.47538841 0 -1
0.36845338 1.1849713 -0.46345592 0 -1
0.39100456 1.1845858 -0.46110868 0 -1
0.4155336 1.1751103 -0.4547677 0 -1
0.43932891 1.1681523 -0.44962478 0 -1
0.55286348 1.150794 -0.43270063 0 -1
0.56354272 1.2123752 -0.45832038 0 -1
0.58643287 1.2080226 -0.4547776 0 -1
0.60863966 1.2071378 -0.45283294 0 -1
0.63432062 1.1843929 -0.4412992 0 -1
0.65632617 1.1832058 -0.43935478 0 -1
0.67694521 1.1909466 -0.44140613 0 -1
0.69621462 1.2085474 -0.4478538 0 -1
0.71741593 1.2133257 -0.44870782 0 -1
0.75858414 1.2334132 -0.45521259 0 -1
0.77771831 1.2569304 -0.46446061 0 -1
0.79783648 1.2739675 -0.47091198 0 -1
0.81987679 1.2744808 -0.47017014 0 -1
0.84136581 1.2803311 -0.47182667 0 -1
0.86316741 1.2833138 -0.47228456 0 -1
1.1863799 -0.98398781 0.52267468 2 0
1.1944529 -1.0728793 0.56144583 2 0
-1.835165 -2.306088 -0.26917326 0 -1
-1.8160765 -2.2875476 -0.26051641 0 -1
-1.7986991 -2.2692285 -0.2526803 0 -1
-1.787595 -2.2510366 -0.24771488 0 -1
-1.7809398 -2.2328908 -0.24479961 0 -1
-1.7805572 -2.2146609 -0.24475443 0 -1
-1.7809741 -2.1964047 -0.24511957 0 -1
-1.7776325 -2.1782792 -0.24384534 0 -1
-1.7769146 -2.1600707 -0.24380124 0 -1
-1.7687972 -2.1422334 -0.2404784 0 -1
-1.7651262 -2.1242337 -0.23920548 0 -1
-1.7631664 -2.1061597 -0.2387526 0 -1
-1.7565463 -2.0884166 -0.236251 0 -1
-1.756187 -2.0702708 -0.23661852 0 -1
-1.7611706 -2.0516801 -0.23944533 0 -1
-1.7633111 -2.0332577 -0.24104285 0 -1
-1.767153 -2.0146308 -0.2434603 0 -1
-1.7672467 -1.9963089 -0.24423873 0 -1
-1.7672269 -1.9779756 -0.24501753 0 -1
-1.7698128 -1.9593272 -0.24702585 0 -1
-1.7605042 -1.9420273 -0.2437079 0 -1
-1.1095963 -1.368314 -0.020493984 0 -1
-1.0549159 -1.3741975 0.0032650232 0 -1
-1.0484314 -1.3607838 0.0036929846 0 -1
-1.0435479 -1.3467057 0.0033018589 0 -1
-1.0394144 -1.3322928 0.0025012493 0 -1
-1.7952681 -0.98600674 -0.37033331 0 -1
-1.8180914 -0.95401609 -0.38545322 0 -1
-1.8672462 -0.9096874 -0.41366947 0 -1
-1.824743 -0.90655291 -0.39686692 0 -1
-0.38825512 -1.4694273 0.29323167 4 2
-0.38239861 -1.4601731 0.29365081 4 2
-0.36571217 -1.4444005 0.29694337 4 2
-0.35331666 -1.4388225 0.30063534 4 2
-1.5791459 -0.60462379 -0.36256456 0 -1
-1.5532446 -0.59724379 -0.35436845 0 -1
-1.5304525 -0.58818269 -0.34780943 0 -1
-1.4960911 -0.58666384 -0.33511376 0 -1
-1.4833109 -0.57169366 -0.33387494 0 -1
-1.4933894 -0.54188144 -0.34491098 0 -1
-1.6936109 -0.38625622 -0.45823371 0 -1
-1.6864536 -0.36555791 -0.46067774 0 -1
-1.6723521 -0.3494823 -0.45943987 0 -1
-1.664932 -0.32885933 -0.46188486 0 -1
-1.6491263 -0.31398618 -0.45982993 0 -1
-1.6504014 -0.28714442 -0.46718538 0 -1
-1.590555 -0.30368578 -0.44099247 0 -1
-1.5746446 -0.2893374 -0.43893921 0 -1
-1.5520377 -0.27996254 -0.43320417 0 -1
-1.5279546 -0.27187634 -0.42665148 0 -1
